VERSION .7
FIELDS x y z
SIZE 8 8 8
TYPE D D D
COUNT 1 1 1
WIDTH 940
HEIGHT 1
VIEWPOINT 0 0 0 1 0 0 0
POINTS 940
DATA ascii
34.8557 -204.0471 1180.849 
35.29721 -203.6501 1182.999 
35.3533 -204.4574 1182.918 
35.35861 -204.5144 1183.787 
35.3167 -205.0201 1183.977 
35.12172 -203.3387 1184.089 
35.21817 -205.4515 1182.725 
34.86346 -202.4034 1182.797 
34.93524 -205.9948 1183.93 
34.74542 -203.1828 1185.54 
34.73978 -201.5549 1184.419 
34.88673 -206.9555 1182.259 
34.73409 -205.3439 1185.242 
34.40155 -204.3868 1186.093 
34.82664 -202.5048 1185.083 
34.49875 -200.7785 1183.748 
34.52513 -207.4539 1183.196 
34.37209 -205.7884 1185.434 
33.85828 -202.2078 1187.299 
34.15205 -201.4299 1186.576 
34.06548 -199.9292 1185.693 
34.229 -206.3557 1184.872 
33.94109 -203.6009 1186.982 
34.11156 -200.579 1186.339 
33.70547 -199.0834 1184.461 
33.79424 -207.8072 1183.804 
32.82413 -206.5312 1186.184 
33.22076 -204.4837 1187.591 
33.18867 -202.846 1188.36 
33.34724 -201.0995 1188.776 
33.04977 -199.1624 1187.92 
33.68874 -199.1467 1185.266 
33.98909 -200.0348 1182.84 
32.74939 -205.2793 1187.577 
32.55612 -203.8179 1188.917 
33.35565 -200.071 1188.371 
32.50195 -197.4918 1184.691 
33.28769 -198.5303 1183.498 
33.05263 -208.0127 1184.305 
31.8571 -205.7769 1188.021 
31.47685 -204.8887 1189.521 
32.68385 -202.4782 1189.748 
32.95967 -200.2317 1190.425 
32.32808 -198.1388 1187.438 
32.87009 -199.1747 1189.253 
31.99034 -197.1279 1186.07 
31.662 -207.672 1185.693 
30.97226 -206.408 1188.029 
31.89621 -203.7462 1190.248 
32.73978 -200.8635 1191.068 
32.87352 -199.4184 1190.364 
31.70874 -197.5934 1188.702 
30.85283 -207.0058 1187.156 
30.32846 -205.2589 1190.458 
31.22485 -202.927 1192.354 
32.23706 -201.6765 1191.845 
32.73511 -199.2236 1191.993 
31.5706 -197.4811 1188.074 
32.48717 -198.4364 1190.461 
29.67009 -205.6768 1190.45 
30.51042 -203.9452 1192.151 
32.37773 -199.9835 1193.028 
31.6218 -196.3692 1186.355 
31.42258 -196.8169 1188.587 
32.11792 -197.526 1190.708 
29.31708 -205.4243 1191.071 
30.41138 -202.5138 1193.318 
31.68663 -201.9969 1192.579 
32.14261 -200.7936 1193.06 
32.43173 -198.7818 1192.958 
32.41295 -198.0063 1191.788 
29.89458 -203.8407 1192.604 
31.08035 -202.0582 1193.242 
32.07774 -199.6265 1193.959 
31.5584 -195.6544 1186.741 
32.01183 -196.448 1191.365 
28.60901 -204.8562 1191.971 
29.29082 -203.5497 1192.985 
31.10248 -200.5853 1194.354 
31.62457 -200.5027 1194.087 
32.13016 -198.294 1194.265 
32.25145 -197.3275 1192.721 
31.57173 -195.564 1188.501 
31.79445 -195.1884 1190.407 
29.93834 -200.5388 1194.702 
31.7216 -198.9229 1194.801 
32.07605 -197.0643 1193.859 
31.83447 -194.4923 1188.883 
31.82675 -194.5227 1190.979 
31.86188 -195.0646 1192.073 
28.87379 -201.5523 1194.199 
30.80437 -198.9728 1195.333 
31.55708 -196.9955 1195.201 
31.27428 -197.7908 1195.445 
31.89066 -195.8793 1193.746 
27.99706 -203.1077 1193.313 
28.39458 -200.3642 1194.987 
29.37926 -198.5478 1196.064 
31.48537 -196.1423 1194.848 
31.63445 -193.5462 1191.22 
31.79062 -193.2945 1189.511 
31.60178 -194.7112 1192.819 
28.58351 -199.0047 1195.963 
29.7867 -197.656 1196.316 
30.20848 -196.8221 1196.303 
29.29272 -194.5626 1196.639 
31.22966 -194.6914 1193.802 
27.00529 -199.1233 1196.018 
27.08501 -198.3438 1196.647 
28.12459 -196.9877 1197.272 
29.73042 -195.9499 1196.636 
30.75188 -195.0698 1195.106 
31.25365 -193.4531 1192.02 
27.11125 -197.4833 1197.315 
29.02301 -196.4549 1197.066 
28.59232 -194.6458 1197.482 
28.85068 -193.5884 1196.404 
30.36406 -194.2987 1194.883 
31.11456 -192.7166 1191.287 
30.2393 -193.208 1193.107 
24.00436 -199.2693 1196.077 
25.05426 -197.097 1198.061 
26.46158 -195.9359 1198.612 
27.52617 -195.7916 1198.136 
28.1447 -195.143 1197.901 
27.55768 -193.9162 1198.446 
27.49025 -192.9236 1197.964 
25.64238 -196.4161 1198.554 
27.97273 -192.6381 1196.646 
29.27065 -193.2903 1195.111 
30.40492 -192.3069 1191.3 
24.16127 -195.2785 1200.051 
26.70998 -194.9249 1199.015 
26.05122 -193.8738 1199.778 
26.17729 -192.8258 1199.447 
26.73845 -191.7581 1197.421 
29.37839 -192.7099 1193.385 
28.98888 -192.0803 1192.382 
22.11613 -195.5872 1200.432 
25.13466 -194.3526 1200.251 
25.85472 -192.011 1199.128 
28.1769 -192.2363 1194.696 
28.56439 -191.3915 1191.013 
22.29683 -194.3306 1201.785 
23.6619 -194.0772 1201.322 
25.08824 -192.8508 1200.874 
24.8336 -191.5481 1200.155 
25.07481 -191.3298 1199.19 
25.93443 -190.9035 1196.025 
27.84525 -191.6796 1193.3 
27.64496 -191.1296 1191.856 
19.38228 -195.9699 1200.957 
23.4803 -193.2929 1202.066 
25.16605 -193.5537 1200.67 
24.40248 -192.2083 1201.462 
24.62402 -190.7053 1198.258 
20.85934 -193.9587 1202.971 
22.05629 -193.6097 1202.734 
23.42365 -192.6113 1202.478 
23.67458 -191.7016 1201.918 
23.21806 -190.6893 1200.728 
25.35744 -190.0368 1194.272 
23.97894 -190.0209 1197.125 
26.77919 -190.854 1193.073 
21.10121 -192.7904 1204.46 
21.85033 -191.8541 1204.205 
23.15562 -191.009 1201.743 
20.62891 -189.0324 1199.237 
24.14001 -189.5232 1195.45 
26.26079 -190.0462 1191.384 
20.0446 -193.2846 1204.621 
21.69142 -192.4589 1204.22 
21.86693 -191.1785 1203.724 
21.98779 -190.8385 1203.027 
20.68697 -189.9149 1202.869 
19.89551 -188.9009 1200.179 
22.81151 -189.0352 1196.426 
19.10454 -194.3767 1203.359 
20.56432 -191.8428 1205.841 
20.51743 -191.071 1205.658 
24.4778 -189.0162 1193.509 
20.15524 -188.2886 1198.105 
18.5249 -194.1226 1204.238 
20.32503 -191.3505 1206.19 
20.62257 -190.608 1204.849 
3.331772 -216.983 1235.402 
1.980606 -214.9528 1233.93 
3.450485 -215.2971 1235.474 
4.401932 -218.1628 1236.637 
3.530548 -213.6529 1235.261 
5.132629 -215.937 1237.37 
3.445496 -218.7544 1235.364 
5.465912 -213.5499 1237.342 
6.066559 -219.1221 1238.788 
3.10524 -219.9922 1234.689 
6.856079 -211.9776 1238.472 
6.350632 -218.1039 1239.019 
5.905029 -219.9462 1238.48 
6.134979 -210.5709 1237.305 
7.942841 -217.9332 1240.543 
6.977997 -219.8482 1239.598 
3.8423 -222.4481 1235.083 
3.096512 -212.5897 1234.448 
7.797653 -216.2413 1240.209 
6.996185 -220.7782 1239.302 
2.305206 -221.1735 1233.246 
4.74733 -222.679 1236.164 
4.630539 -210.5999 1235.516 
7.503159 -212.5281 1239.298 
8.392029 -216.7708 1241.155 
8.21225 -219.2277 1240.714 
5.502594 -222.983 1236.871 
8.817169 -220.1419 1240.997 
3.880768 -224.7629 1234.664 
8.097626 -213.3812 1240.279 
8.56958 -218.3468 1241.262 
6.661591 -222.624 1238.054 
8.707382 -221.3323 1240.419 
2.984741 -225.4338 1233.212 
4.515976 -225.9795 1235.007 
8.860168 -217.8984 1242.087 
8.611694 -216.4014 1241.831 
6.299271 -223.9698 1237.105 
9.37677 -221.3518 1241.06 
5.348618 -226.0805 1235.677 
9.159561 -219.0098 1241.908 
8.38089 -213.5031 1240.972 
8.353439 -225.3098 1237.886 
8.898254 -224.1749 1238.911 
9.652985 -221.067 1241.772 
9.555313 -223.0985 1240.165 
5.141891 -227.4213 1234.829 
8.574341 -216.615 1242.596 
9.242859 -218.8911 1242.357 
8.430679 -213.6532 1241.727 
8.231812 -209.4425 1239.849 
7.29924 -227.7252 1236.24 
10.11079 -222.2567 1241.338 
4.281937 -227.4025 1233.965 
6.523605 -228.6964 1235.18 
8.877243 -218.3282 1243.001 
8.436447 -211.2988 1241.027 
9.777802 -227.7465 1238.106 
10.51595 -226.9902 1239.022 
10.60229 -225.7768 1239.727 
10.35793 -222.3527 1242.22 
10.48923 -224.6321 1240.382 
5.557785 -229.3487 1233.775 
8.598877 -218.7547 1243.617 
8.133682 -215.5363 1242.982 
9.236313 -219.4611 1242.84 
9.624969 -220.7083 1242.448 
8.300079 -211.5135 1241.729 
8.233673 -208.4751 1240.272 
8.647034 -230.0758 1236.384 
9.915695 -221.7181 1242.678 
10.73547 -224.1786 1241.289 
6.733322 -229.8834 1234.73 
8.187119 -213.8015 1242.418 
8.145798 -208.8529 1241.08 
8.585159 -230.9908 1235.948 
10.58011 -229.0514 1238.066 
11.82021 -228.4906 1239.369 
11.89577 -227.1895 1240.352 
10.29344 -223.5358 1243.636 
10.70296 -223.6129 1242.154 
5.92157 -230.6257 1233.22 
7.742172 -217.6863 1243.978 
8.72496 -219.9414 1243.496 
7.511703 -214.3857 1243.237 
9.358521 -220.951 1243.153 
7.70726 -212.688 1242.729 
7.833145 -210.7437 1242.289 
7.819138 -207.4784 1240.766 
11.81938 -229.8137 1238.54 
9.560547 -222.3432 1243.637 
10.95412 -225.0226 1243.138 
11.18829 -225.0755 1242.163 
11.29495 -225.2918 1241.226 
7.797852 -232.455 1234.424 
7.973587 -218.6399 1244.018 
7.651749 -207.9871 1241.519 
11.22017 -230.8566 1237.512 
12.67081 -230.5951 1238.787 
12.38571 -229.0687 1239.809 
9.881668 -224.0539 1244.686 
10.6013 -225.0118 1243.916 
12.16721 -227.3541 1240.829 
9.357376 -232.7836 1235.466 
6.912781 -217.9592 1244.33 
6.476059 -214.8484 1243.892 
7.727371 -220.6867 1243.867 
8.631821 -221.3505 1243.737 
6.793854 -213.1096 1243.42 
7.131927 -211.9608 1243.144 
7.065781 -209.162 1242.596 
12.92245 -232.8666 1237.406 
13.45032 -232.765 1238.03 
8.972427 -222.6603 1244.091 
11.1113 -226.5106 1243.398 
11.82616 -227.3007 1242.163 
8.97551 -233.9966 1234.166 
6.762085 -220.7481 1243.851 
12.42555 -233.9686 1236.305 
13.40834 -231.4759 1239.123 
12.55429 -229.0714 1240.636 
8.64624 -223.438 1244.385 
9.811752 -224.7193 1244.868 
10.63245 -227.3657 1243.949 
12.20583 -227.6003 1241.31 
10.44365 -234.5405 1234.73 
5.93837 -216.401 1244.318 
5.742264 -219.5389 1243.942 
5.367798 -213.7505 1244.023 
7.133789 -222.1712 1243.775 
8.025085 -222.3017 1243.97 
6.305557 -211.0207 1243.475 
11.84232 -234.2133 1235.801 
13.83182 -235.1099 1236.586 
14.00163 -233.2041 1238.522 
13.09534 -230.3904 1239.949 
9.410416 -224.601 1244.979 
11.54045 -227.9488 1242.759 
12.22299 -229.214 1241.775 
5.562042 -217.1873 1244.406 
4.929398 -217.7505 1244.268 
5.264496 -222.3085 1243.153 
5.340622 -211.8781 1243.888 
6.330246 -223.0808 1243.41 
5.750137 -209.3121 1243.631 
12.63196 -235.8768 1234.936 
14.48235 -235.611 1236.979 
13.58632 -235.8985 1235.684 
14.0096 -232.531 1239.435 
14.65102 -235.0283 1237.904 
13.45494 -231.2721 1239.98 
12.72961 -230.0223 1241.024 
7.737335 -223.4384 1244.037 
8.244125 -224.9995 1244.489 
9.558197 -227.4323 1244.685 
9.09549 -227.4307 1244.746 
10.61923 -229.0761 1243.559 
4.308823 -215.8897 1244.362 
4.49234 -214.9073 1244.312 
4.409103 -212.7132 1244.112 
6.914917 -224.7351 1243.603 
5.624298 -210.3036 1243.789 
14.61639 -236.8178 1235.846 
14.30351 -233.7187 1239.183 
8.272858 -226.5146 1244.548 
10.15669 -227.7643 1244.294 
11.65474 -229.8859 1242.431 
5.336182 -224.2263 1242.812 
6.059418 -225.9959 1242.955 
4.634277 -210.837 1244.227 
15.13234 -236.89 1236.616 
15.09021 -236.4233 1237.64 
14.03435 -232.7057 1239.86 
14.77983 -235.0368 1238.53 
13.19382 -231.3617 1240.777 
12.40211 -230.5035 1241.633 
9.881516 -228.7856 1244.233 
7.847244 -228.8351 1243.967 
10.4886 -230.547 1243.247 
14.93317 -235.9116 1238.547 
13.99783 -233.7649 1240.093 
14.65579 -235.2518 1239.402 
8.990005 -229.9695 1244.003 
8.261139 -229.6578 1244.02 
11.87198 -231.5516 1242.017 
9.869553 -230.1891 1243.703 
15.79633 -237.722 1236.822 
15.04543 -236.9118 1238.628 
13.53658 -232.3766 1240.601 
12.95622 -232.1297 1241.137 
10.38663 -231.6083 1243.066 
9.266922 -231.1602 1243.852 
15.58092 -237.4303 1237.606 
13.88654 -234.4319 1240.283 
12.64365 -233.3772 1241.229 
10.67967 -232.5658 1242.56 
15.4677 -237.8325 1238.193 
14.29292 -235.6165 1239.848 
11.78349 -233.2802 1241.637 
9.807114 -232.4163 1243.417 
14.67381 -237.2378 1239.152 
13.55244 -235.3517 1240.376 
9.616379 -233.5469 1243.013 
10.86069 -233.5289 1241.968 
9.185196 -232.4477 1244.33 
14.93126 -238.4567 1238.785 
13.68735 -236.831 1239.984 
11.85672 -234.499 1241.235 
9.337814 -233.0682 1244.128 
9.997803 -233.9465 1242.237 
8.666595 -231.7986 1244.551 
9.015213 -234.4703 1242.499 
10.44469 -234.785 1241.448 
13.19081 -237.7718 1239.97 
12.06381 -236.1476 1240.661 
9.459824 -234.8046 1241.795 
9.496124 -235.8911 1241.023 
10.57632 -236.5976 1240.623 
11.78307 -237.3472 1240.336 
35.11583 -239.2451 1190.327 
36.74829 -237.5069 1193.673 
35.77119 -239.7635 1190.622 
37.51369 -238.0569 1193.979 
37.22678 -239.4164 1192.856 
37.44312 -237.5843 1194.322 
38.31526 -238.9265 1194.605 
38.44345 -237.7302 1195.716 
37.36041 -236.7432 1195.464 
38.64551 -239.5014 1195.088 
35.72748 -236.6159 1194.282 
36.74014 -240.8648 1191.576 
39.10333 -238.2346 1196.468 
38.33205 -237.0354 1196.851 
36.9104 -236.3033 1195.946 
35.79727 -237.206 1193.218 
37.96565 -240.8424 1194.066 
39.64801 -238.8042 1197.271 
38.98247 -237.5912 1197.186 
37.38512 -236.5502 1196.445 
35.40279 -236.1893 1195.231 
33.87712 -236.4833 1193.259 
36.67088 -241.7758 1191.423 
39.54703 -240.1425 1196.953 
38.33206 -236.9904 1197.399 
36.54021 -236.1775 1196.717 
34.30351 -236.1188 1194.369 
37.73921 -241.74 1194.071 
39.34492 -241.1713 1197.098 
40.17476 -240.021 1198.334 
40.16028 -238.347 1198.662 
39.66655 -238.0064 1198.635 
37.06427 -236.6434 1197.562 
34.15932 -235.9427 1195.491 
35.14723 -236.1109 1196.233 
32.33012 -235.8634 1193.994 
36.26224 -243.2053 1190.853 
40.45049 -241.502 1199.632 
40.25752 -239.135 1198.798 
38.79443 -237.4744 1198.574 
36.42172 -236.7613 1198.083 
33.55803 -235.7794 1194.907 
34.61542 -236.4383 1197.305 
37.26346 -242.8741 1193.786 
38.53464 -242.4122 1196.623 
40.01727 -242.3385 1199.468 
41.00681 -240.5525 1200.834 
41.32567 -241.9129 1201.911 
40.10756 -238.6006 1199.248 
38.95525 -237.8645 1199.102 
33.65414 -236.1138 1196.582 
32.46341 -235.6634 1195.389 
32.1879 -235.7042 1194.709 
36.25952 -244.2725 1191.631 
41.23154 -243.1759 1202.712 
40.56075 -239.5174 1200.471 
39.78221 -238.6716 1200.127 
37.39833 -237.6612 1199.248 
35.66135 -236.9422 1198.358 
32.55457 -236.446 1197.267 
29.8934 -235.8984 1194.649 
37.26456 -244.4352 1195.67 
36.52437 -245.3784 1194.234 
39.54912 -244.5282 1200.834 
39.9971 -244.7812 1202.072 
41.49904 -240.8629 1202.677 
41.63885 -241.6225 1202.763 
41.66423 -243.1047 1203.879 
38.9236 -238.492 1200.427 
33.68503 -237.1018 1198.092 
31.7502 -235.8908 1196.042 
30.03909 -235.888 1195.39 
37.89902 -244.6828 1197.41 
36.00922 -245.4824 1191.341 
39.91571 -245.8002 1203.113 
41.06721 -240.1357 1202.544 
40.04608 -246.3592 1204.691 
40.28156 -239.322 1201.164 
39.48997 -239.0551 1201.462 
37.66652 -238.4412 1200.477 
35.84924 -237.7816 1199.322 
31.84677 -236.9523 1197.655 
30.60782 -236.0919 1196.173 
37.10025 -245.8679 1196.3 
36.41667 -246.2455 1194.403 
38.75038 -245.2943 1199.658 
41.70506 -241.3369 1203.995 
41.93486 -242.6991 1204.828 
41.6057 -243.7757 1205.242 
34.44281 -238.1385 1199.324 
32.44702 -238.0268 1198.611 
30.17331 -236.7952 1197.152 
36.30548 -246.9008 1194.098 
39.34879 -246.833 1202.094 
39.49803 -247.527 1203.858 
40.59021 -239.7639 1202.456 
41.23642 -240.8107 1204.127 
40.61861 -245.7452 1205.932 
38.05215 -239.1166 1201.621 
35.72469 -238.6537 1200.33 
28.85684 -236.217 1195.967 
30.6268 -237.6248 1197.946 
28.78336 -236.4922 1196.604 
38.36946 -246.7719 1199.427 
37.02351 -246.7009 1196.397 
38.98445 -247.7195 1201.268 
39.47845 -248.0816 1206.189 
40.51102 -240.091 1203.397 
41.65126 -241.8198 1205.245 
41.91748 -242.5056 1205.271 
41.67484 -243.128 1206.015 
40.39851 -246.2714 1207.443 
41.48106 -244.1438 1206.093 
39.89839 -239.5922 1202.534 
38.66333 -239.4951 1202.397 
32.7354 -239.4048 1199.914 
30.42772 -239.6626 1199.322 
29.14818 -237.5148 1197.715 
27.70146 -237.0316 1197.205 
37.08246 -247.6263 1196.619 
39.12132 -248.8946 1202.399 
39.28261 -248.4998 1204.709 
40.73091 -241.2102 1205.075 
41.25731 -244.6128 1207.021 
37.33429 -239.8228 1202.562 
36.06618 -239.3558 1201.377 
33.00352 -240.0391 1200.792 
31.09175 -240.214 1199.972 
28.94925 -239.5869 1199.064 
38.46977 -248.7674 1200.031 
36.79526 -248.1413 1195.535 
38.86267 -249.4426 1201.293 
39.20514 -249.0618 1203.482 
39.07982 -249.432 1205.637 
40.13736 -247.1267 1208.13 
39.2216 -240.134 1203.594 
39.60649 -240.6899 1204.541 
40.87941 -241.9105 1206.014 
41.32263 -244.097 1207.213 
40.97411 -244.8498 1207.799 
37.74268 -241.0516 1204.735 
36.3374 -248.1661 1193.635 
39.2077 -249.2773 1206.171 
40.62416 -245.7456 1208.453 
39.86978 -248.0654 1207.634 
39.60724 -241.2747 1205.376 
40.12163 -242.4283 1207.075 
41.1273 -242.8371 1206.878 
41.17334 -243.3981 1207.32 
35.20891 -240.9194 1203.479 
35.12207 -240.245 1202.252 
31.43761 -240.9725 1201.352 
40.37735 -246.4523 1209.193 
40.25879 -247.5802 1209.088 
40.78175 -244.1132 1208.398 
40.66872 -245.1108 1209.028 
35.29329 -241.4744 1204.655 
39.7036 -249.2085 1207.151 
40.2314 -248.5804 1208.323 
38.72083 -242.3262 1207.275 
37.14165 -241.743 1205.953 
39.90337 -243.1021 1208.288 
40.31895 -243.6102 1208.634 
33.06494 -242.0131 1204.311 
31.49245 -241.78 1202.84 
40.30727 -246.6105 1210.39 
40.45763 -248.2836 1209.384 
39.44974 -242.7436 1207.94 
36.81822 -242.3627 1207.402 
40.2877 -244.3227 1209.551 
35.629 -242.576 1207.67 
34.85587 -242.4335 1206.795 
40.31361 -247.4999 1210.584 
40.26302 -245.9351 1210.71 
38.21967 -242.9422 1208.738 
36.85828 -242.7829 1208.483 
39.53578 -243.8111 1209.795 
40.37251 -245.0982 1210.071 
32.13605 -243.528 1206.384 
38.66014 -243.375 1209.525 
40.07829 -244.334 1210.158 
34.23265 -243.8387 1209.009 
39.93614 -245.1617 1211.191 
37.4644 -243.5907 1210.066 
36.17813 -243.6907 1209.848 
38.71574 -244.0664 1210.88 
39.05856 -244.6052 1211.64 
32.19405 -244.2099 1208.113 
37.71907 -243.9138 1210.777 
38.03056 -244.3158 1211.519 
9.914261 -203.2543 1196.647 
9.512161 -203.6209 1197.67 
9.296616 -204.5707 1195.432 
9.000473 -204.8674 1196.603 
8.179062 -206.5233 1195.185 
8.321381 -206.2295 1197.887 
8.44986 -206.2558 1194.577 
8.04097 -206.8883 1196.881 
9.410934 -203.3905 1198.627 
9.096939 -205.4113 1194.604 
7.595963 -207.8023 1193.607 
7.185684 -208.2357 1195.446 
7.411865 -207.813 1198.245 
8.368912 -205.7872 1198.634 
9.65892 -204.7158 1194.923 
8.909088 -206.3639 1193.916 
6.840927 -208.9163 1194.412 
8.094772 -207.2353 1193.51 
7.590042 -207.0485 1199.167 
8.786819 -204.0421 1199.413 
6.890228 -209.2588 1193.439 
7.848831 -207.883 1192.936 
6.294373 -209.312 1195.962 
6.055222 -208.6902 1200.125 
8.329102 -204.2423 1200.037 
9.192337 -202.7407 1199.902 
9.344559 -207.0097 1193.373 
8.551697 -207.5088 1193.015 
5.84227 -210.4839 1193.902 
5.876526 -210.0424 1194.729 
6.043579 -209.1299 1198.885 
6.453842 -207.7472 1200.51 
6.72052 -206.5215 1200.769 
6.069122 -210.7943 1193.078 
7.04068 -209.7927 1192.67 
8.515884 -209.1481 1191.966 
5.203217 -210.2372 1196.486 
4.18576 -209.4454 1202.235 
5.053543 -209.7574 1200.025 
7.57991 -204.2407 1200.85 
8.520462 -202.7645 1200.822 
4.666214 -211.0972 1195.087 
4.050476 -211.921 1194.654 
7.75174 -209.36 1192.258 
4.525116 -208.4925 1202.436 
3.828049 -210.0145 1202.009 
4.447464 -205.9072 1203.143 
9.050003 -201.9819 1200.876 
4.062149 -212.5254 1193.854 
7.076218 -211.0618 1191.747 
8.2173 -210.7779 1191.104 
4.321915 -211.0333 1196.064 
3.842133 -210.8572 1198.194 
3.379715 -207.1782 1203.987 
2.858215 -209.7545 1203.989 
2.463562 -210.5187 1203.671 
4.180038 -210.1983 1200.768 
6.676849 -203.0838 1202.431 
5.613205 -203.7939 1203.064 
2.046829 -212.233 1197.447 
2.473328 -212.625 1196.094 
5.258041 -212.5265 1192.345 
3.374268 -211.3227 1197.377 
3.244232 -208.7453 1203.924 
2.59256 -210.8065 1202.361 
2.719925 -206.1686 1205.314 
4.653915 -204.3376 1203.916 
2.764282 -213.9209 1194.379 
4.125381 -213.3438 1193.026 
6.602875 -212.7831 1190.903 
1.444016 -211.9373 1199.274 
2.525848 -207.2363 1205.246 
2.058685 -209.0841 1205.757 
1.643997 -210.7638 1205.416 
1.668808 -211.1824 1203.85 
6.577896 -202.2979 1203.407 
5.227478 -203.0722 1204.504 
0.7180481 -213.405 1197.885 
4.853653 -213.7483 1191.852 
1.491409 -211.5869 1200.954 
1.837967 -209.9949 1205.824 
0.9868011 -211.6464 1205.048 
0.09779358 -212.2728 1201.875 
3.254257 -204.7304 1205.894 
1.797363 -206.9766 1207.006 
-0.02661133 -212.9164 1199.784 
1.657639 -214.7977 1195.34 
6.008224 -214.33 1190.523 
1.204895 -210.0076 1207.592 
1.234467 -210.8304 1206.871 
0.889328 -211.58 1206.894 
2.105484 -205.9248 1207.092 
4.072968 -203.3411 1206.28 
-0.45784 -214.0906 1199.23 
0.7888031 -215.3101 1196.397 
3.638412 -214.5984 1192.677 
4.794174 -214.9126 1191.235 
0.1798248 -212.4946 1207.076 
-0.2630463 -212.581 1202.611 
2.76973 -204.5299 1207.37 
1.460953 -206.4438 1208.516 
0.4943237 -208.2231 1210.388 
-1.021515 -213.7979 1201.397 
2.313522 -215.9021 1193.719 
-0.5704956 -213.1271 1201.122 
0.5355225 -210.8437 1209.011 
0.02284241 -212.4955 1208.786 
-0.3174133 -212.929 1205.427 
1.845901 -204.6979 1209.592 
-0.1321564 -215.667 1197.772 
-1.270294 -214.6053 1201.39 
1.413193 -216.6791 1194.815 
3.843979 -215.6297 1191.885 
-0.6735992 -213.6529 1208.182 
-0.7803345 -213.2542 1203.643 
-1.155014 -213.799 1202.893 
1.118393 -204.9163 1211.598 
0.7534637 -206.2954 1211.031 
-0.04040527 -211.6199 1210.321 
0.3691254 -217.1071 1196.458 
-0.8500671 -215.2315 1199.677 
-1.498642 -214.8383 1202.893 
1.60611 -217.6291 1194.396 
2.993011 -216.7159 1192.571 
-1.543274 -214.7439 1206.453 
-0.3272858 -213.0563 1209.599 
0.1170197 -207.5524 1212.358 
-0.2492218 -209.6319 1212.12 
-0.4801636 -216.4427 1198.166 
-1.264481 -215.7757 1200.9 
-1.845169 -217.2069 1203.98 
4.138977 -217.1277 1191.225 
-0.9489441 -214.5731 1209.48 
-1.427338 -214.4074 1204.039 
-0.59935 -213.0129 1211.843 
0.2777405 -218.4505 1196.554 
-2.086807 -216.4725 1205.811 
3.634491 -217.9162 1191.656 
-0.5322266 -213.3 1210.963 
-1.907013 -215.5183 1206.383 
-0.6810455 -214.0549 1210.498 
-0.556778 -209.7545 1213.873 
-0.9272461 -212.0622 1213.954 
-0.4566193 -218.4302 1198.147 
-0.9069824 -217.5462 1199.449 
-1.562561 -217.7488 1202.69 
-1.688843 -215.0999 1204.343 
-2.194016 -217.703 1205.964 
3.437637 -218.9565 1191.925 
2.520615 -219.1169 1193.182 
-1.908768 -216.3648 1207.852 
-1.191971 -216.306 1210.409 
-1.023209 -214.2669 1213.643 
-0.9327393 -215.6515 1211.458 
0.2003326 -219.6253 1196.909 
-2.008728 -219.1941 1205.278 
-2.079559 -216.5815 1206.912 
-1.356613 -211.9174 1216.939 
-1.746887 -216.2417 1216.284 
-1.185852 -216.8352 1213.864 
-1.02002 -216.5963 1212.643 
-0.4249725 -220.7066 1199.032 
-0.7805786 -219.0293 1199.406 
-1.253128 -220.0307 1202.665 
-2.199463 -218.8258 1206.76 
-2.007721 -218.2308 1207.976 
-1.178833 -217.7263 1211.275 
-1.746368 -214.8834 1216.849 
-1.074982 -217.6682 1212.28 
-1.748474 -221.0848 1205.433 
-1.943115 -221.2941 1206.874 
-1.990616 -218.1124 1217.417 
-1.099564 -219.5901 1213.216 
-1.03743 -222.3116 1204.003 
-1.770569 -221.4135 1209.258 
-1.764236 -222.7123 1208.676 
-1.317108 -220.4497 1211.201 
-1.280823 -218.8477 1214.432 
-0.8025818 -221.9498 1202.572 
-1.6064 -222.4612 1206.164 
-1.50824 -224.024 1208.519 
-1.109512 -221.063 1212.387 
-1.23262 -220.3203 1214.851 
-0.1773529 -221.6812 1199.025 
-0.3920593 -226.1255 1206.417 
0.105545 -225.3728 1203.665 
-1.472382 -223.5932 1209.692 
-1.018753 -223.0482 1211.982 
-1.279999 -224.491 1209.575 
-0.9088287 -222.2179 1213.53 
-1.896713 -219.8836 1217.736 
-0.9166107 -222.3028 1214.342 
-0.9237061 -225.3172 1207.516 
0.1722107 -228.0434 1208.91 
-0.6374359 -224.1468 1213.419 
-1.023544 -222.3177 1215.559 
-2.112427 -218.7523 1219.097 
-0.143219 -227.3431 1207.814 
0.2559814 -227.3431 1205.496 
-0.6150818 -224.8079 1212.265 
0.2552948 -227.3465 1211.69 
-0.2942505 -225.7183 1214.772 
-1.591721 -222.0848 1218.313 
-1.815842 -221.8095 1219.9 
-0.3771515 -225.945 1217.154 
0.7484894 -227.6044 1203.338 
-0.02218628 -226.5341 1212.274 
0.9568939 -228.7302 1211.192 
0.6351929 -228.8225 1207.82 
-0.1947784 -225.9273 1213.554 
-0.7108612 -224.6889 1217.468 
0.4139557 -228.234 1206.611 
0.9447021 -228.9484 1204.369 
0.5955963 -228.056 1213.09 
1.056229 -229.3345 1209.264 
1.370544 -229.436 1212.254 
0.1958008 -228.8253 1216.328 
0.1034393 -227.1055 1214.154 
-1.063431 -224.408 1219.532 
-0.3988342 -226.0644 1219.711 
1.303177 -229.598 1202.81 
1.962158 -230.3368 1210.917 
1.349152 -230.1631 1208.045 
1.127472 -230.0304 1206.446 
0.2903595 -229.4673 1217.777 
-0.1566162 -226.8991 1218.326 
1.537582 -230.5009 1203.923 
0.6952972 -228.6907 1214.011 
2.614761 -231.6504 1212.342 
0.5529022 -230.4087 1217.781 
2.029129 -231.7567 1201.975 
1.485672 -230.1544 1213.565 
2.722992 -232.476 1208.844 
2.805954 -231.9038 1211.322 
1.41745 -230.5786 1206.438 
0.499527 -229.6057 1215.874 
0.8323364 -230.9408 1218.885 
0.3267059 -228.2276 1219.926 
2.454849 -232.6899 1204.606 
1.586823 -230.2901 1201.35 
3.356186 -233.2964 1211.903 
1.809952 -232.0824 1215.652 
2.024841 -231.7416 1205.58 
0.9740753 -230.611 1215.788 
1.565491 -232.2113 1217.383 
2.938522 -233.428 1206.803 
3.326721 -233.297 1210.503 
3.197281 -233.4131 1213.237 
2.008224 -232.9198 1218.819 
4.100342 -234.9475 1209.011 
4.484695 -235.339 1210.633 
3.959427 -234.5 1211.788 
2.695313 -233.6525 1215.886 
1.722412 -232.3032 1220.126 
2.819199 -234.2115 1217.584 
3.345642 -235.0739 1203.449 
3.575867 -234.8096 1206.69 
4.399368 -235.3127 1212.355 
1.386658 -231.5222 1220.425 
3.594772 -235.2307 1219.471 
2.932175 -234.2956 1202.363 
4.979889 -236.0821 1209.321 
4.368454 -236.0869 1206.68 
3.939835 -235.5567 1215.933 
4.799438 -236.8558 1217.99 
4.140518 -236.504 1204.241 
3.816406 -235.7918 1202.395 
6.094315 -237.255 1209.98 
5.253326 -236.4812 1212.345 
4.198486 -235.8182 1220.573 
6.609543 -237.8708 1211.402 
5.727829 -237.2365 1208.178 
4.821732 -237.2246 1205.102 
5.596405 -237.5558 1215.415 
5.855865 -238.3421 1202.231 
7.201141 -238.31 1209.987 
6.994171 -238.3132 1208.709 
6.160843 -238.7622 1203.014 
7.342209 -239.5164 1213.995 
6.270111 -238.4652 1216.789 
5.577789 -237.6334 1201.345 
8.054794 -238.9885 1210.65 
5.974442 -238.2126 1205.74 
7.648163 -239.1281 1212.107 
8.366745 -240.9379 1214.991 
7.215042 -239.4176 1218.169 
7.428818 -238.6288 1199.375 
4.286545 -235.9088 1200.606 
6.84465 -239.1587 1202.207 
8.223389 -239.0789 1208.99 
7.189178 -239.259 1205.248 
7.917175 -239.947 1213.1 
8.024902 -240.3718 1217.548 
8.657639 -241.3251 1215.959 
5.247116 -236.8658 1200.237 
7.809158 -239.8334 1203.729 
7.723648 -239.1301 1207.387 
9.087418 -239.8755 1211.222 
9.299911 -239.6066 1209.352 
8.64502 -240.8034 1213.594 
9.435394 -241.8921 1215.177 
8.138657 -239.405 1199.998 
4.862228 -236.1721 1199.235 
8.712021 -240.1942 1202.116 
8.551056 -239.93 1205.899 
10.00218 -239.9942 1209.822 
9.358688 -239.7007 1208.034 
9.710922 -241.005 1212.481 
8.307297 -238.764 1197.66 
9.404037 -240.4859 1204.456 
10.60524 -240.5524 1210.542 
11.09375 -240.2145 1208.163 
10.20636 -241.7939 1213.517 
9.340454 -240.013 1199.456 
9.520706 -240.5188 1202.675 
13.19695 -241.354 1208.925 
10.20096 -240.1145 1206.939 
13.01768 -240.8803 1207.855 
12.50037 -242.2649 1211.888 
10.52794 -242.4178 1214.887 
10.01263 -239.7647 1197.439 
10.50177 -240.6058 1200.238 
10.7576 -240.8425 1202.873 
11.70802 -240.4414 1205.999 
13.50008 -240.7082 1206.382 
11.50484 -242.4217 1213.526 
11.28448 -240.4407 1197.903 
10.78615 -240.754 1201.725 
10.58492 -240.6939 1204.204 
16.52901 -242.6882 1208.02 
12.49783 -240.5092 1206.51 
15.11711 -241.3056 1206.529 
12.68333 -240.7918 1199.143 
11.10211 -240.7666 1200.293 
12.87633 -240.5981 1204.157 
12.19991 -240.8412 1201.975 
13.49356 -240.5539 1204.977 
16.2079 -241.1852 1205.409 
15.32047 -240.701 1204.817 
13.45569 -240.676 1201.819 
14.71834 -240.4341 1203.853 
17.68037 -241.2733 1204.651 
14.75743 -240.3742 1202.538 
15.81697 -240.3247 1203.458 
17.93976 -240.5529 1203.426 
17.20929 -240.2727 1203.127 
