VERSION .7
FIELDS x y z
SIZE 8 8 8
TYPE D D D
COUNT 1 1 1
WIDTH 124
HEIGHT 1
VIEWPOINT 0 0 0 1 0 0 0
POINTS 124
DATA ascii
61.83754 -194.1799 1249.966 
59.02586 -193.4325 1249.48 
66.3477 -198.075 1249.611 
68.84482 -198.294 1251.95 
69.54549 -198.0425 1253.811 
70.56749 -197.4267 1256.001 
71.52873 -197.9126 1257.348 
72.95815 -199.0095 1258.374 
74.13115 -200.9838 1259.205 
74.03606 -202.9694 1255.416 
72.8082 -202.6884 1252.898 
71.11339 -202.181 1250.235 
69.87846 -201.7676 1249.573 
67.55177 -200.0884 1247.783 
59.07819 -194.8987 1246.886 
59.27907 -197.4914 1245.242 
59.46703 -198.5528 1244.041 
60.35738 -201.1468 1242.267 
61.75603 -200.8896 1243.765 
56.50038 -194.7708 1247.148 
63.31255 -196.9992 1247.141 
63.61316 -196.0755 1248.672 
64.43619 -194.9505 1250.947 
64.56564 -194.4401 1252.121 
62.77455 -193.7672 1251.196 
57.27791 -191.1292 1249.525 
58.21489 -195.0527 1246.785 
60.84865 -196.5375 1247.566 
64.60591 -197.416 1248.876 
64.27425 -194.6379 1251.783 
60.68611 -192.0021 1251.271 
75.70505 -210.7701 1278.377 
74.72685 -213.4149 1280.07 
73.40477 -216.9623 1281.64 
69.89337 -227.3247 1277.879 
70.42763 -228.0056 1276.288 
73.21617 -225.9905 1273.102 
75.95976 -221.2379 1270.996 
76.75551 -216.4712 1273.735 
74.67831 -219.583 1276.982 
72.13303 -224.2322 1278.249 
70.44019 -228.2832 1276.398 
69.80003 -229.2882 1274.517 
73.38957 -221.6702 1278.515 
74.29137 -221.9002 1276.766 
67.29109 -232.3928 1273.483 
68.31564 -232.3658 1270.605 
70.45227 -230.8681 1268.764 
72.9799 -227.7932 1265.972 
76.58844 -221.0808 1268.321 
77.10503 -219.0833 1270.47 
78.62054 -212.6293 1267.741 
78.67291 -214.2312 1266.517 
75.14171 -224.0907 1269.175 
73.20404 -227.4769 1271.354 
71.10094 -228.6339 1274.312 
69.31868 -228.8402 1277.555 
70.35564 -226.3179 1279.889 
75.62321 -214.4182 1278.451 
76.41216 -210.0334 1277.875 
75.7151 -203.5956 1276.619 
75.41304 -202.4197 1275.264 
60.25179 -233.6342 1248.998 
63.06297 -231.1401 1247.828 
67.17667 -227.1654 1247.126 
69.56593 -221.3595 1244.384 
66.78201 -223.3799 1242.199 
64.1842 -230.5866 1243.421 
63.40329 -231.921 1245.64 
63.60368 -231.405 1247.692 
66.40379 -227.9676 1249.347 
69.21274 -223.4798 1246.151 
69.21437 -222.3383 1245.072 
66.90466 -222.1846 1242.243 
65.56699 -222.1951 1240.649 
65.00476 -225.2929 1241.466 
64.46565 -230.8938 1243.299 
64.77701 -230.5637 1244.772 
67.56195 -227.4583 1248.366 
71.12038 -216.3256 1244.032 
69.853 -215.0136 1241.35 
65.01289 -218.6149 1239.709 
64.20197 -216.8647 1238.208 
67.02721 -219.6477 1240.388 
67.21675 -221.2155 1240.785 
70.18739 -219.6916 1244.417 
69.74857 -224.1597 1247.786 
65.8143 -229.2261 1244.534 
63.93155 -230.1367 1242.413 
63.40886 -227.9504 1241.371 
61.93147 -225.2544 1239.204 
62.21548 -218.5984 1239.085 
66.78062 -222.0656 1241.577 
47.58861 -239.0732 1269.584 
46.70428 -239.288 1268.52 
46.5253 -239.1664 1266.968 
45.90912 -239.1308 1265.255 
46.75224 -239.2399 1263.956 
52.47083 -238.9095 1266.765 
49.9781 -239.078 1269.736 
44.16628 -238.8567 1266.674 
42.38828 -238.5654 1265.11 
45.88161 -239.3237 1266.571 
46.60901 -239.1922 1269.239 
48.62849 -239.189 1268.656 
45.1763 -239.2716 1267.117 
42.7868 -238.6442 1263.956 
41.18065 -237.9793 1262.641 
39.96207 -237.7477 1264.561 
42.34955 -238.5831 1268.191 
48.98453 -239.2912 1265.505 
49.20302 -239.0952 1261.803 
41.87349 -238.2386 1263.076 
40.29346 -237.659 1261.476 
49.04744 -239.3008 1263.503 
45.69081 -239.2866 1267.058 
46.88811 -239.2912 1268.028 
53.94887 -238.7575 1264.417 
54.1557 -239.0303 1262.683 
52.16183 -239.1439 1260.65 
50.07173 -239.1119 1258.166 
40.86121 -237.5955 1259.936 
42.00409 -238.1309 1261.187 
42.39005 -237.8746 1257.293 
